ply
format ascii 1.0
element vertex 167
property float x
property float y
property float z
property int Red
property int Green
property int Blue
end_header
-4.55612497139326 1.18518876268753 2.51444686196979 0 0 0
-1.61674296019817 1.35904337861484 -2.15951572195944 0 0 0
3.23495098361009 0.933679173054673 0.797926701423821 190 190 190
-7.15413197077975 -1.34344697815442 -0.537828672055193 0 0 0
0.194498821170173 -1.17515436592853 1.39668494487017 0 0 0
4.60219805082428 -1.42419278255607 0.805838981741354 190 190 190
1.43044054808923 -0.894790931361945 -0.880245457661373 0 0 0
-4.17132509681733 -1.18698074205737 -1.00171290298063 0 0 0
1.24218097473379 2.00469617029165 -0.0906444955176511 255 0 0
2.43359618747583 2.43539047231661 0.226670637220922 0 0 0
-6.85851900321615 -2.84588723572578 0.863750706254165 0 0 0
0.292291455656115 0.148271583512907 0.566038155491618 255 0 255
2.83922055840027 3.97944765276769 1.19398458599326 0 0 0
1.67800894760756 0.275639173097957 -1.89931130956564 0 0 0
0.983719619630857 2.23806466530597 -1.66047769536147 0 0 0
0.333401812550595 -0.403090034291397 -2.07294595370115 255 0 255
-4.14627020565472 2.95997199903174 1.04559411070268 255 0 0
2.19263254283576 1.3426780096019 -1.53935594071427 0 0 0
-1.93099149045541 1.35982644118755 1.74235595913422 0 0 0
-5.38119248884883 2.38511548133683 -0.999834465766479 0 0 0
2.40953812102184 0.803592541248693 -0.287787290175468 255 0 255
3.18941835899037 -1.67904018057409 -0.154749213015316 0 0 0
-0.708441168488333 -3.81580826554677 -0.548338574159868 0 0 0
-1.6456538461063 0.51173613691932 -3.11607350138205 0 0 0
3.89567552070265 -0.22708891044664 0.475377911052886 0 0 0
0.653614532148043 2.26599616946188 -3.88467098581985 0 0 0
1.07426095160807 0.363311921627606 2.91917951509257 190 190 190
-3.06203652952364 -4.86168122225585 0.310740014807936 0 0 0
2.94724996102193 2.77732989705075 3.74587371140305 0 0 0
2.54145499129289 -1.75366155606097 2.06509465827009 0 0 0
4.15657366366715 1.04758787966015 -0.0637535644820478 255 0 255
3.68891153578554 -0.441815267351579 1.32696747490949 0 0 0
4.85932512488202 0.398145915236036 2.2201235138957 0 205 0
-5.744844692799 2.90119227982046 0.937203060107066 0 0 0
3.53165615423715 1.29409049875573 0.319500058376639 0 0 0
0.242742633873756 0.00566279527689406 5.93400752284793 0 0 0
1.45284388943162 0.073948294020594 6.18858845009455 0 0 0
2.22057465409653 -0.0707469255963081 -1.56056150976524 0 0 0
2.87505442733699 -0.48961424236909 -1.32544452441494 0 0 0
0.413075860036479 -1.20768413755711 2.10664013186577 0 255 255
-4.47827963216878 0.271166236211629 -1.49920119527395 0 0 0
-2.14986544360213 0.600280923278458 3.03614378861569 0 0 0
-0.814892923092801 2.62547876414296 0.964077008727586 0 0 0
-4.53670710455294 -0.76712751516731 2.98950687475224 0 0 0
-0.451496821724799 0.872622216868114 1.71225147637039 0 0 0
4.67065362472592 -1.32516966651867 -2.9576865552459 0 0 0
3.39197910155972 -1.73446227220775 0.111557682069834 0 205 0
3.72660773661029 -3.61136387993114 0.328512755468903 255 0 255
0.846798048172725 -0.0773824250108182 -1.77553638597594 0 0 0
-0.0759537964769154 4.20601367949179 1.26499160351058 190 190 190
-4.56661157263587 -1.7221469834636 3.93091118428385 0 0 0
-0.15636653267018 1.04768710655813 -0.288802403543688 0 0 0
4.64101607843066 0.431225657188666 -2.47443509863457 0 0 0
4.54809867427951 -1.23706973400183 -1.06041095658609 0 0 0
-1.46751569743719 0.22426925434985 -1.34233243920304 0 0 0
1.42087905135642 -0.588603312094598 -3.22794861311357 0 0 255
4.57676675097029 0.325554498705499 3.4213332247865 0 0 0
4.33125983324638 -0.354939692507412 -0.767330963813757 0 0 0
2.38143946162836 -0.854262839562619 0.466227635544022 0 0 0
-6.85960441841479 0.814215305342723 -1.65512083105339 0 0 0
2.95915320788324 -0.104305651692197 -0.424816308092845 0 0 0
-3.46034991939829 -0.368569656388068 -3.018670129532 0 0 0
-2.86422501784793 -0.0884449710623588 -1.81868026553669 255 0 255
2.91102985417643 1.42369304672668 -2.97597800582429 255 255 0
1.88467706404056 2.19270295353178 -1.09174412477439 190 190 190
2.43715005393146 -1.23488912487031 1.80837497343694 0 0 0
-2.97401434904586 1.81126336129738 -1.16273074961631 0 0 0
3.42679273149295 1.70473287424533 0.254187553662215 0 0 0
-0.594189459040524 1.67247692922823 -0.945931865886492 0 0 0
-2.14281053734644 0.339065854476755 3.93078619680108 0 0 0
3.42057428974487 0.79035895317357 -0.169270858714649 0 0 0
3.80753269453524 0.0852351262909248 -0.620414704006005 255 255 0
1.33068042174674 1.11309124494926 0.814627742291993 0 0 0
-1.44689369176947 -0.329803275033625 2.18591713643197 0 0 0
-0.0526754596785357 1.79923493120259 1.39748967810897 0 0 0
0.983018996253811 -1.41179281078274 -0.370675371801022 0 0 0
1.18349669046792 0.563772104299887 1.57914177957157 0 0 0
-1.95941735139149 -6.04606115404479 -1.4357045147015 0 0 0
1.7733306623619 0.631181008826084 -1.95195095819554 0 0 0
-1.62219653508808 -3.20972305374801 -2.12088857219022 0 0 0
1.87778361594283 0.380258293102702 2.01851479886112 0 0 0
-5.25358844279032 3.03255381756363 -0.47499132174355 0 0 0
1.64519018830492 0.216417598341635 -2.95642042637808 0 205 0
2.44664028886539 -2.46704658075197 0.288750916473643 0 0 0
2.20084601377824 3.3792072202073 0.407998863643701 0 0 0
3.21049799866667 -1.53010320542065 -1.21352696845431 0 0 0
-4.8876896997472 -4.76683208156658 0.838621795381084 0 0 0
1.52736511376756 1.36772088456469 -1.66596452717418 0 0 0
-3.00884800715024 1.87582406487973 1.12867362360135 0 0 0
-6.19887074212073 2.00745303654106 2.75534947254912 0 0 0
4.61857594379835 2.20955680800108 4.01759904235734 0 255 255
2.2155019506103 -1.44928574094196 1.17202498503839 0 0 0
0.96135049003739 1.61542312106426 1.3654024297801 0 0 0
-4.2159881722171 0.612656539757044 4.52045571414375 0 0 0
5.03408479995231 -0.212128022855457 -1.37796536068549 0 0 0
-0.714663713395495 -2.94637375356186 1.45126883480224 0 0 0
-1.77918444701074 -1.5735880697226 2.36943356561208 0 0 0
5.33338237121937 0.103337224347089 3.12463766864998 0 205 0
4.12126357148426 -2.61666874806172 -3.6777436224934 0 0 0
0.740279320695744 -0.529715675576221 1.50427983935833 0 0 0
0.199447555694681 -1.00067445189462 -1.90799274154372 0 0 255
-5.61437822481428 2.66888719455916 -0.783037442071117 0 0 0
-1.6225455671403 -1.57721258113755 -0.65945168599111 0 0 0
-4.62495435972296 1.44431663669557 -3.13761853686819 0 0 0
-2.44825058815143 -0.569743557593027 0.463794899914883 255 255 0
0.0421859159433808 -1.69660591354583 -3.34269832089947 0 0 0
-4.78080846606856 0.00459815123867224 -0.81111448687275 0 0 0
1.09887494137891 0.678180433201926 1.82860985951327 0 0 0
0.00670827783830151 -2.30589276407131 3.8376948186792 0 0 0
2.33174710026047 -2.0441958691615 -0.658646022959438 0 0 0
-2.56957923964552 -1.26468321138136 0.148639362346683 0 0 0
2.85703231149153 1.18478105350206 0.233204842161871 0 0 0
-0.715960872312777 -1.50767853447188 1.30406387739472 0 0 0
-4.39501646324253 -3.61747051075608 -0.150282428762066 0 0 0
-2.98374722293274 4.03221310335413 -2.1198932443924 0 0 0
-0.671450474936221 0.684843016935118 1.67015883727946 0 0 0
0.696445010905506 -0.749526833087842 1.56795802577719 0 0 0
0.429919822521898 -1.9957078999753 -2.74801637289177 255 255 0
3.60888196602092 -0.377245417937459 -0.803136731416916 190 190 190
2.13905339323785 0.404237859968946 3.57998495181693 0 205 0
-3.17940630151002 1.29031659963183 -1.52274781155355 0 0 0
-1.96433865093333 -1.66944120035029 -1.26584265015686 0 0 0
2.71736714688946 0.345268100324305 2.6062109816731 0 0 0
-4.16112073613757 2.28428403241949 -1.35837517077458 0 0 0
1.62036769523306 0.779986582364984 -1.24537865012266 0 0 0
-2.22995717717588 1.65315872040313 1.06734317436861 0 0 0
-3.63074148843378 2.27377027165305 -0.321853197721638 0 0 0
-2.69586455065383 -0.329288845327559 -2.9656841805312 255 0 255
4.270333439276 0.531798628287543 -2.18027321924722 0 0 0
1.9266952905133 -1.14427431805294 1.01114030862207 0 0 0
0.788542942460552 -1.99153639664257 1.99334643701629 0 205 0
4.98775734759238 -0.495869239900684 1.93215476180967 0 0 0
1.00192315314009 -1.71217855180742 0.342480512275313 255 0 0
0.12442783215848 -0.468128477524245 1.63233287414158 0 0 0
0.399293744175619 -2.43929751626536 0.57824632453083 255 0 255
-3.75735740317748 -4.753011592602 0.364136822618594 0 0 0
2.08611891626995 0.468163693938441 0.845921311691487 0 255 255
2.50400944609298 0.323581619266897 -0.691913255420047 0 0 0
-3.82848216577944 -4.83076930832294 0.534572040523568 0 0 0
-3.73088747813582 -2.48748734532679 1.32726961318616 0 0 0
-3.84848665059379 -2.65474864711692 -2.15197172438264 0 0 0
-5.84748752121806 2.22126474847664 -1.28098410403504 0 0 0
-3.34238383765078 2.21356327892383 0.850125988737541 0 0 0
-3.44114499314469 -1.68483213257311 0.963202045760875 0 0 0
-4.24347585140393 -4.60870328377059 -1.06202124742463 0 0 0
-0.0555097187076543 -2.51701926187063 -0.68163444762153 0 0 0
-5.5218047099217 -4.48050539547382 -0.881982822815816 0 0 0
-3.62150052759866 -0.831780688599685 1.2722966843106 0 0 0
3.44029849209324 -1.12599499508084 -0.74050410634805 255 0 255
2.28073405020244 2.69409283119893 -0.616719273871317 0 0 0
3.33116072152125 -0.404503410278718 -4.1475700248724 0 0 0
6.00685912890008 -0.413641602874642 -2.54155709804538 255 0 255
0.899444321493695 -1.93738800472818 0.445231202812926 255 0 255
2.61160946965709 1.80488097295308 0.265062511525019 0 0 0
4.41525985918151 -1.04895105833131 -0.937951326542499 0 0 255
3.06008232468892 -1.39717333155355 -2.05567433869148 0 0 255
2.20798727045872 1.25046064747023 0.844039055411642 255 0 255
5.02284660752882 -0.389813240995699 -1.96233225912601 255 255 0
-5.4283870915996 3.30062331675774 -1.49914884664438 0 0 0
-5.12407486597132 0.578843535474014 -0.976348279082016 0 0 0
-2.41586849659977 3.4475507918046 -0.720406439450798 0 0 0
-0.21728744703084 0.0582859880729593 -3.80246090122148 0 0 0
-1.96784094857344 2.27628952352084 -0.636185016203116 0 0 0
-1.98132229599701 3.12712482024771 -0.0412611412838636 0 0 0
-1.3363789438298 3.3531276069665 -2.32287898650165 0 0 0
-2.38459407464985 3.05506475476278 -0.774522166215761 0 0 0
-1.21665375478637 3.6726226197474 -1.55666306079282 0 0 0
