ply
format ascii 1.0
element vertex 167
property float x
property float y
property float z
property int Red
property int Green
property int Blue
end_header
-4.56154836747045 0.406134837969852 2.73790569438719 0 0 0
-1.46113998518709 2.07166684811602 -1.88377977915432 0 0 0
3.22007868064783 0.59438519295133 0.977306507517328 255 0 0
-7.16179875142625 -1.13616182311763 -0.860574576851342 0 0 0
0.166562376761689 -1.47889911945867 0.944557483825952 0 0 0
4.64542564778535 -1.62542968053757 0.407259557919528 255 0 0
1.46110499571958 -0.650333805684452 -1.15772094169085 0 0 0
-4.13719866065335 -0.751160224563506 -1.34741218225946 0 0 0
1.30691040244008 1.98683605321976 0.48099316027722 255 0 0
2.45960327150368 2.21517318670474 0.879385894037577 0 0 0
-6.9257518853846 -3.05048351464971 0.110043384615077 0 205 0
0.294535986826577 -0.0154404757697327 0.592723177025091 255 255 0
2.82587390076038 3.41284141411641 2.22575162246076 0 0 0
1.70952753746473 0.698111958399366 -1.69367815392324 0 0 0
1.08087263685137 2.6544671530743 -1.07030781241663 0 0 0
0.400703582742677 0.177011567859163 -2.15106481602585 255 255 0
-4.16873338359363 2.54975458237174 1.71660835714858 255 0 0
2.26459062597049 1.75711844062895 -1.14728535975325 0 0 0
-1.93841188640869 0.663266260637195 1.98932359293107 0 205 0
-5.30555629733259 2.58483957637731 -0.388395387673117 0 205 0
2.39387884906726 0.667226774268458 -0.0518509517806132 255 255 0
3.20624913013434 -1.69431957505268 -0.566805021623429 0 0 0
-0.644848279576717 -3.44082536845788 -1.61224346081093 0 0 0
-1.55883924609216 1.01257487947583 -2.86169713114115 0 0 0
3.88498448163119 -0.434060031518148 0.481727050227372 0 0 0
0.769364160661967 3.08195668374411 -3.19091253801373 0 0 0
1.05803480275863 -0.482352450287829 2.94665284279484 255 0 0
-3.0781057877777 -4.71228860127727 -0.94067967144286 0 0 0
3.02166755412814 1.8176365484001 4.30274794689826 0 0 0
2.54738771314779 -2.16101032575207 1.55344693257254 0 205 0
4.2413216936859 1.09749536973483 0.16689882549169 255 255 0
3.7346180538371 -0.616023853039514 1.15569128887465 0 0 0
4.90013855454591 -0.137564052468431 2.32544104267667 0 0 255
-5.69659689197354 2.55247489664293 1.57732169150486 0 205 0
3.55461466961698 1.10685021583767 0.65976214330077 0 0 0
0.180541948265885 -1.53285837560649 5.78975911320941 0 0 0
1.44868893524944 -1.45038916580552 5.95850583868691 0 0 0
2.22610449774732 0.137036221817565 -1.54151361449103 0 0 0
2.97563551878556 -0.114486694928465 -1.35797049212803 0 0 0
0.402304305225086 -1.68913882907875 1.74212363533127 255 0 255
-4.37436055604545 0.769742545592376 -1.60353507548054 0 0 0
-2.12048023936644 0.0279233418477586 3.00679299459024 0 0 0
-0.796937260311165 2.29426877125668 1.57187468023721 0 0 0
-4.56809003634358 -1.46733536499895 2.60610174923299 0 0 0
-0.313097448257642 0.645560778108368 1.73105213271478 0 0 0
4.68723980980734 -0.70492236749292 -3.12298666956611 0 0 0
3.44305821675719 -1.6390343626253 -0.317886395255783 0 0 255
3.78692748810957 -3.59728078675753 -0.62484467780843 255 255 0
0.897261173671764 0.432092975507604 -1.81175257105905 0 0 0
-0.0450223563224861 3.74101367344626 2.20558994329911 255 0 0
-4.63029364058262 -2.74842810374131 3.35943114948156 0 0 0
-0.0480542824733127 1.03565688826609 -0.0969472801144878 0 0 0
4.63430404548508 0.800348347402327 -2.17964507501604 0 0 0
4.59219970433653 -0.946642568556025 -1.31213815599312 0 0 0
-1.49241779656676 0.313234372612562 -1.22194101063837 0 0 0
1.49205200640313 0.277656801018373 -3.3146669911453 0 255 255
4.55361727168416 -0.591402200191813 3.40507835914439 0 0 0
4.39427263964605 -0.195392223786048 -0.761177211245256 0 0 0
2.45468223496632 -0.881886941560736 0.179406198396865 0 205 0
-6.85849931277847 1.18487129641065 -1.40832791428282 0 0 0
3.02124999111601 0.0632787718031463 -0.44537402756408 0 0 0
-3.3293518933774 0.473899758568296 -3.17152598173645 0 0 0
-2.83045941702154 0.381114884834222 -1.80385500586468 255 255 0
2.96848513170047 2.08897781703596 -2.48464622295558 190 190 190
2.00131075195532 2.48931511646137 -0.528428096853442 255 0 0
2.41075572929987 -1.82915102820639 1.41735939764749 0 0 0
-2.90924449829216 2.0926940840983 -0.746578835341922 0 205 0
3.43793856067304 1.4451936333776 0.761026482161037 0 0 0
-0.516394265708642 1.75567249562419 -0.567282899734443 0 205 0
-2.15642641021307 -0.696552664849876 3.84977599723565 0 0 0
3.41056994207809 0.680987694462431 -0.00272371889349948 0 0 0
3.84292323495272 0.145329265701125 -0.576396073060227 0 205 0
1.36460618152374 0.883770048169231 1.09273339254662 0 0 0
-1.46764347702727 -0.905910058967401 1.96470014699436 0 0 0
-0.00608079062198945 1.50087427708346 1.73361786025927 0 0 0
1.03450002672309 -1.1708435250166 -0.702838243627278 0 0 0
1.16340944274222 0.0159935513387586 1.68936532693966 0 0 0
-1.89560137267468 -5.42042409556412 -2.98515389328359 0 0 0
1.89672971811401 1.10445602343496 -1.81552201834047 0 0 0
-1.56327379237874 -2.61119836311076 -2.86240693612464 0 0 0
1.86322553131624 -0.282320466255483 2.11853618027019 0 0 0
-5.13876323198633 3.22360766584249 0.140757844237141 0 205 0
1.71652523339522 1.04181607228059 -2.77836392980611 0 0 255
2.47227270477294 -2.48284703430162 -0.365710729486164 0 0 0
2.27615584530836 3.23459650378141 1.22114925641061 0 0 0
3.23531725650947 -1.12606304354138 -1.49696961355584 0 0 0
-4.97542102204483 -4.94208766445958 -0.375777290236229 0 0 0
-2.76758449034543 -1.91587488666581 3.56493925476552 0 0 0
1.57072623322476 1.72043022182259 -1.30529363172228 0 0 0
-2.96762976733809 1.6127888377027 1.47742107334544 0 205 0
-6.16662170939397 1.26308716542349 3.11526099726051 0 0 0
4.62895041872354 1.17469386498207 4.46038085993997 255 0 255
3.5001085926679 0.451839828200706 0.310739149120409 0 0 0
2.16544716253082 -1.84278926197236 0.75104476517247 0 0 0
0.979951102033228 1.22229290420307 1.79360528934677 0 0 0
-4.20978363953469 -0.453651702722801 4.45361612860892 0 0 0
4.99626735138507 -0.199719536138056 -1.27432864275399 0 0 0
-0.640621764301809 -3.01686344498254 0.579291191288119 0 0 0
-1.78817433759514 -2.12088055851729 1.92251801021496 0 0 0
5.3529478070535 -0.768947462776595 3.08438913312666 0 0 255
4.12986540010145 -1.81185020919888 -4.17473015670422 0 0 0
0.687558602987215 -1.04428065102892 1.36877821265406 0 0 0
0.264666618464713 -0.413534222119102 -2.16433907474925 0 255 255
-5.58055490532243 2.82891894449647 -0.229928678987016 0 205 0
-1.56578847315925 -1.21258147720067 -1.08527857909356 0 0 0
-4.5556281813859 2.21239164345113 -2.72490743187283 0 205 0
-2.41377766265588 -0.502332049326492 0.236737658011777 190 190 190
0.116057132100393 -0.667232605775569 -3.72711128306886 0 0 0
-4.81815467479868 0.105568532711709 -0.804573541940797 0 0 0
1.18269907052468 0.22307044936135 1.89408091463928 0 0 0
-0.0196113975881628 -3.01940970803134 3.09942821466302 0 0 0
2.3145009022448 -1.91843384580878 -1.11598025945454 0 0 0
-2.54824235039947 -1.13808566639051 -0.0970615356505016 0 0 0
2.85892596825941 1.02703215990496 0.501461184608165 0 0 0
-0.754071003857898 -1.78073128916623 0.818028734682823 0 0 0
-4.40329602501072 -3.33075415682895 -1.06785200414818 0 0 0
-2.87638734087708 4.45629299409817 -1.07436741636432 0 0 0
-0.625898768801277 0.413342293422525 1.65749766312261 0 0 0
0.648182178684164 -1.21741939133655 1.33767350385897 0 0 0
0.44178743043426 -1.25580023608514 -3.2134883457828 190 190 190
3.58151783073571 -0.384925301294675 -0.7755488806705 255 0 0
2.14459986419081 -0.496373964639998 3.58238216575977 0 0 255
-3.12272087137741 1.6603023968992 -1.13853384821109 0 205 0
-1.97633847104004 -1.43208468209579 -1.55652236267379 0 0 0
2.67539687307847 -0.470588884671822 2.62623697333409 0 0 0
-4.07364387028223 2.67145779060141 -0.897078921599555 0 205 0
1.70000548386178 1.04723078727739 -1.03564989038842 0 0 0
-2.26811628796124 1.17074793538295 1.52747130393958 0 0 0
-3.60330358188231 2.24873187302867 0.214848293753137 0 205 0
-2.62485959728732 0.564688102962193 -3.04062511146638 255 255 0
4.33238277738706 0.975489674410038 -2.03131463658561 0 0 0
2.00719543453055 -1.38333048515637 0.745223075198703 0 0 0
0.809326706651486 -2.42661562422936 1.36951973301172 0 0 255
4.9989556852863 -1.10512634192463 1.75535965312045 0 0 0
1.00914291019107 -1.74707282917537 -0.107529663589438 255 0 0
0.151723561731661 -0.724439561882782 1.44706981425225 0 0 0
0.425843395445997 -2.38844045390834 -0.095679272483436 255 255 0
-3.75722823390476 -4.58426626331248 -0.916346517762285 0 0 0
2.11464380791521 0.218553990726842 0.908684378557435 255 0 255
2.54410684902826 0.434528416687854 -0.551986616592032 0 0 0
-6.10011090454026 -1.14811607991374 0.377501551387305 0 0 0
-3.84179195954099 -4.7243853108479 -0.759390409003392 0 0 0
-3.72388835292421 -2.66184193365351 0.516916315500463 0 0 0
-3.82660844280442 -2.00884029229394 -2.74365915937783 0 0 0
-5.7788486800586 2.48007995995274 -0.672172849839451 0 0 0
-3.37333898827044 1.83209071122224 1.43029619401342 0 0 0
-3.42029699458946 -1.80388119078032 0.437848626657581 0 0 0
-4.20910113127054 -4.15084850702448 -2.21955853253049 0 0 0
-0.00444605284940973 -2.23729508593526 -1.3458699360083 0 0 0
-5.50451634432544 -4.14926240572169 -2.00180093562241 0 0 0
-3.50719058014481 -0.826004881578312 0.890638462852638 0 0 0
3.49303898079191 -0.88362553087574 -1.05191944607961 255 255 0
2.357757258212 2.78830761403646 0.0579190987357417 0 0 0
3.3800303073734 0.551427496528612 -4.0324940305479 0 0 0
6.03308098507544 0.0652614358312458 -2.46996529787769 255 255 0
0.930208878570162 -1.87054722289855 -0.101844707325685 255 255 0
2.62870977529145 1.46539560166866 0.840969256333587 0 0 0
4.4623135686421 -0.826179783498515 -1.11090523038191 0 255 255
3.11099497513812 -0.892526662741371 -2.33736121650449 0 255 255
2.24885506762432 1.00955327777411 1.05267534285037 255 255 0
5.04500059689926 -0.132983825638112 -1.9375815675403 190 190 190
-0.190127215284479 3.49436491219719 -0.743170759527482 0 0 0
-5.31922019821668 3.71820391280344 -0.744177175933602 0 0 0
-5.03757683224633 0.672306625897862 -0.856559934575245 0 0 0
-2.28243255296525 3.68868943670741 0.0111259303610976 0 0 0
-0.181310601896704 0.829866677259836 -3.61220101421901 0 0 0
-1.88251843405586 2.55463114741368 -0.145911470018612 0 0 0
-1.87520104024037 3.0836338191902 0.630972598623021 0 0 0
-1.20576152953819 3.94297374792106 -1.47608017526052 0 0 0
-2.2871373380742 3.23598511460998 -0.0933770755673042 0 205 0
-1.1024838288741 3.99866588231742 -0.655484918879896 0 0 0
